ply
format ascii 1.0
element vertex 1706
property float x
property float y
property float z
end_header
1.525473 1.549768 12.681721
0.509442 1.069085 8.175268
2.503526 1.285192 7.812141
3.991981 0.667481 5.032559
0.345329 0.573648 5.452296
-1.041360 1.536506 4.561978
1.046632 1.171149 4.578472
-9.144996 -4.465392 6.272823
-4.273799 0.749790 10.381372
-5.362713 1.324770 10.613687
0.016552 0.666051 7.218933
-0.495759 1.136637 7.820637
1.890412 1.411222 10.478631
3.935382 1.408622 11.603522
1.453550 1.822563 8.915711
2.468548 2.650495 9.454439
-4.945429 -2.969090 14.764208
-3.322282 -4.618656 15.450393
3.427021 1.320393 7.973858
6.119675 1.048799 8.323571
0.405127 1.230320 10.196781
-0.990011 0.565688 8.631284
1.251132 0.578075 7.947114
0.573890 1.212288 10.191907
-1.554666 1.086129 7.345919
3.706729 1.087406 12.200566
6.197739 0.406805 8.139596
6.121655 -0.089499 7.779058
4.508581 1.162350 7.590741
6.136295 0.088290 7.995449
6.029588 0.236741 7.617635
6.341354 0.023420 8.179705
3.358665 0.625216 7.090573
6.709941 -0.581462 8.514446
6.486887 -3.064129 6.759378
3.484587 1.348115 6.822316
6.198054 0.171014 8.036564
6.047863 1.335214 7.408046
6.000578 0.362298 7.701730
5.888663 0.948903 7.538301
4.559656 1.403073 7.818681
6.490182 -0.217726 8.258295
6.296721 -0.527333 8.231354
6.338166 -2.790368 7.061072
-1.037536 -1.006056 -6.726136
6.475025 -0.610804 8.551589
3.548156 1.301594 6.461327
6.177725 -1.087075 7.473805
4.498350 1.176738 7.167643
6.358689 1.084325 8.569369
3.537816 1.425493 6.926021
2.755727 2.528810 10.467813
1.447226 1.834397 8.892412
2.067637 2.043524 10.671018
1.845026 0.483932 5.225930
1.972593 1.373278 10.710344
2.346035 2.514085 9.613145
6.198565 0.614494 8.239084
6.026204 0.336701 7.650671
6.380703 -3.168172 7.023206
-9.013056 -4.662201 5.805073
-4.120669 2.037011 12.643994
-4.634847 1.559155 16.256088
-5.686972 1.837188 10.447189
-9.389618 1.289505 6.719982
-9.272665 1.271786 6.826700
-4.559896 2.013782 15.162943
-5.458424 1.993757 13.213536
-7.343125 1.836389 11.927553
-7.035176 0.388425 12.683023
0.551900 1.031387 9.948884
2.501296 1.111900 12.465964
2.545710 0.661585 12.810884
3.449464 1.237093 12.359973
-0.947625 2.160820 10.819654
0.694945 0.746229 7.423306
0.324145 0.339634 4.106727
6.420485 3.123118 8.011565
6.352740 0.958905 8.389741
5.947877 0.987508 8.670566
1.243446 -4.410538 -5.547268
6.006505 -0.753419 6.496219
-1.305493 -1.184378 -7.893916
4.349789 0.960588 6.176815
4.344543 -5.876788 1.540807
1.104728 1.538451 4.393378
-0.420210 1.875558 2.960760
-2.149752 0.225426 1.761676
-7.031511 0.341843 12.688299
-4.638068 1.897695 14.898307
-7.059038 0.373321 12.684447
-6.630156 0.728478 12.713397
-7.179144 -4.349114 7.168698
-6.820979 -3.916194 4.762957
5.901709 0.226682 7.483103
6.165072 0.560823 7.901524
2.343556 1.327177 7.569627
0.770888 0.798353 5.601780
-3.766863 -3.063978 20.350557
-8.124654 -6.394167 5.989650
-7.836198 -4.574437 3.896130
0.163990 2.490949 2.715050
-2.517403 0.785254 3.985607
3.520496 -2.784481 4.424860
6.122775 -0.312308 8.008233
2.933585 2.832869 6.108317
5.785697 1.046501 7.240592
6.320704 -0.330817 8.214468
5.679861 3.370176 5.499342
4.662541 0.886696 7.244470
1.585330 1.541420 8.907895
4.242382 1.258396 11.657492
-1.104919 0.842430 9.933406
4.074966 1.244696 12.174424
2.639567 1.791618 10.175909
4.150657 1.286424 11.654287
-2.497608 0.379200 7.799734
2.632258 1.796098 10.176674
-1.010403 2.187542 10.806182
2.144754 1.625789 10.605313
2.549027 0.835345 12.918884
3.917627 1.062403 7.369880
4.045110 0.716698 6.873408
-3.611489 0.929342 11.975952
-3.783803 0.930319 11.346092
-3.255339 1.002670 11.924350
-1.004632 0.707928 10.162920
-3.602374 -0.217456 3.454283
-3.611481 0.947681 11.935906
-1.214834 -4.470184 8.677122
2.914767 1.942628 11.521729
2.497638 2.728272 11.363815
-1.576787 -4.527134 8.895603
-1.840356 -3.465773 5.355925
1.504162 -4.690482 1.390817
1.916018 1.128027 12.994509
4.219955 1.100288 6.550508
6.354149 0.955241 8.386540
6.378576 -3.156550 7.025172
4.458992 1.190187 7.453992
3.654362 2.944536 6.052956
6.191104 0.618828 8.031491
5.297107 2.133627 7.634520
6.199666 -0.464320 8.259886
0.118159 -3.483988 -10.134255
6.169864 -0.086521 8.022212
0.995898 -3.924398 -6.513225
5.948757 -0.276598 7.827585
2.537632 0.657859 12.805900
-2.065611 0.509648 9.111701
-0.959428 1.516559 9.628101
-1.019203 1.519965 9.614676
2.136727 1.634238 10.598122
0.577177 1.003137 9.891450
0.618656 1.058805 9.607656
2.952901 1.172557 12.447107
0.356782 1.088526 13.122858
2.232364 -4.155476 19.055496
-0.933724 -7.303481 12.873892
-3.632380 -5.107627 5.708775
3.544212 1.491626 7.023168
6.200567 0.328935 8.234653
3.805835 2.267728 6.491684
4.965652 2.811383 9.083417
4.395454 1.106085 7.397196
4.994878 2.854205 9.029770
-0.498442 1.006064 10.616261
6.001410 0.637135 7.632829
-2.849154 1.995248 11.570547
1.825413 1.272470 12.490009
-5.389880 -7.626112 11.231183
3.753366 1.240589 11.755784
2.847825 2.276296 7.175412
7.321436 2.838509 11.730680
5.981171 -0.767529 7.079985
-3.110606 0.483521 2.036796
-2.384299 0.503120 3.912808
-3.046818 -0.496749 1.966701
-3.082170 -0.626031 2.129846
-2.866886 -0.023234 1.973927
-2.117816 2.470855 2.997908
-3.367583 0.209825 2.258893
2.043297 1.200013 2.878256
2.653380 2.635682 8.980122
1.056961 -1.913019 4.898643
2.772173 2.281015 6.650219
-3.169943 -3.895611 15.214565
-5.527297 1.657737 12.637717
-2.838122 -6.020063 16.528805
-5.533751 0.375843 4.859316
-3.823444 0.786995 6.402159
4.053220 1.247974 11.752227
-72.680351 8.173554 47.813423
1.636115 -4.360627 13.819247
3.572225 0.623495 6.599404
-0.161324 -1.975312 3.565782
1.580333 1.639649 4.347400
3.458231 1.123883 5.561884
3.215459 1.318877 7.775276
5.162049 2.215329 7.556092
1.051672 1.670099 3.799797
7.741117 0.023751 14.747718
-6.164570 0.780852 12.624681
-5.842890 0.574892 8.456175
-4.671111 -2.134042 8.911010
-0.039301 -5.602318 -4.731009
6.501359 -0.956014 8.646683
6.193421 0.569232 8.225340
1.414341 -0.966526 -6.505396
6.241494 -0.590939 7.786496
4.030408 3.041807 5.543474
1.227630 -4.632179 15.320966
-2.532234 1.059620 10.867343
3.972622 1.465410 11.653934
-3.475688 -6.829683 15.445804
0.771127 2.129641 13.537430
2.395922 1.029818 13.004212
-9.235196 1.082690 6.638885
-7.119048 0.363561 13.086527
-5.492056 2.009940 13.211074
-4.888796 1.369287 12.338885
-4.388811 1.407697 15.373877
6.102715 -0.801824 8.088010
4.360099 1.067219 7.481866
3.303505 1.352864 7.707548
3.230300 2.239450 7.223351
-5.583297 0.291852 4.729134
-2.053698 -6.989744 14.613561
-7.673541 -4.098500 11.834571
-3.328779 1.397971 17.944571
6.260497 -0.534261 8.090982
1.891122 0.580686 4.563309
6.127616 3.446756 6.834596
-3.486585 -0.374446 3.203266
-4.141001 -0.555730 2.986423
2.875665 1.587160 2.977990
2.912527 1.591370 2.505529
0.534468 1.587717 4.064595
2.987979 2.114175 3.166109
-8.232563 -6.993276 6.899654
-7.753401 -4.356725 6.259505
-6.395595 -4.419375 10.353005
-6.800060 -7.355706 11.710755
5.896847 0.914558 7.642901
4.270143 1.247873 12.379540
3.308476 0.546292 12.566509
3.576325 1.123919 12.505128
-0.213141 1.115433 13.479222
2.020041 1.522610 10.147731
2.398391 1.430235 9.787119
2.126739 1.182603 9.173490
2.274736 1.659673 10.351729
2.151396 1.179632 9.182662
2.123249 1.186166 9.169631
1.965130 1.536948 10.155383
3.172876 0.138312 3.807796
4.198161 -2.403219 4.902195
1.622813 1.100783 8.041761
4.109692 0.788791 7.945336
3.788991 2.800457 6.303718
1.700753 -2.270805 3.694607
0.165510 0.723127 7.160536
2.568293 1.839102 8.325237
1.366237 1.305601 6.674042
0.614272 0.994256 6.813024
3.782553 0.678248 4.063135
0.345332 0.522780 6.834938
6.437585 0.836811 8.495850
4.211313 1.397796 7.712649
6.894261 -0.828644 8.564528
6.226295 0.618156 8.160571
6.131265 -0.552982 6.940026
4.853092 1.455529 7.006260
4.334743 0.952313 6.160517
-0.631783 0.813801 8.818155
2.259233 -4.512811 19.046360
2.037514 -4.346576 14.811123
2.649587 2.033647 10.204140
-3.416805 0.806277 9.841696
0.014405 0.629985 8.793323
-0.973627 -6.568502 14.105577
0.932559 -4.557969 14.207423
2.127300 -6.115285 19.688993
4.017380 1.080413 7.044094
3.306695 0.918407 5.884096
6.466953 -0.102702 8.081120
5.368773 2.956028 9.189303
5.376902 2.976230 9.187812
4.529069 1.422812 7.792214
6.536879 -0.147787 8.612813
2.670830 -1.328729 -3.356664
6.497777 -0.390456 8.254382
6.424501 2.927263 8.026434
-0.026202 1.059936 13.329615
1.878727 0.562648 13.006245
5.296879 2.976057 8.960654
6.964041 2.775580 11.361042
3.228409 2.551908 6.696758
6.088273 -1.026963 7.509915
-6.884061 0.882374 13.234662
-7.904788 -4.864144 5.548588
-6.935490 -0.159834 13.057046
-6.167351 0.781087 12.639747
-8.425569 0.650770 8.090131
-4.381460 1.366473 15.234805
-4.347493 1.299357 15.433828
-2.215927 0.376916 3.989484
0.956495 1.640027 4.324567
-0.199451 1.456539 4.127751
-0.448989 2.559719 3.228595
0.679797 1.537749 3.843590
-7.133256 0.809715 13.352529
2.824848 1.412239 12.237850
-7.489866 -0.090485 4.090723
2.546078 0.839832 12.937066
1.926260 1.130390 12.540126
0.206950 2.138678 12.827479
2.511712 1.008796 12.816582
-4.711742 0.167818 6.400860
2.552805 0.873949 12.903341
4.628656 1.256212 7.053268
2.938368 3.106171 6.437413
6.475676 1.211193 7.726797
6.524850 -0.132628 8.640995
3.982915 1.169451 7.440721
3.003471 1.184955 7.226138
-8.817643 -4.468253 6.102950
-3.676905 -4.381773 14.832635
6.728239 3.069782 9.562477
3.315413 1.464664 6.674696
7.764876 1.275237 11.742073
4.348782 0.999638 6.449774
-6.942687 -6.448781 5.901991
-8.574377 -7.140283 11.206275
-7.318640 -4.236840 5.886987
-6.923515 -4.502192 6.893967
-7.756395 -4.611214 7.031919
-8.718299 0.636806 8.360270
2.556027 1.551153 7.160345
-9.129424 -7.112600 4.756137
-6.420427 -7.165740 7.267045
-6.364431 -3.672877 6.557741
-1.307278 2.239806 11.205807
1.218739 2.352732 7.835059
5.990196 1.226253 7.184031
5.034638 1.694498 7.903955
6.083694 0.586136 7.873114
5.981327 0.708938 7.659060
6.347094 -2.964820 7.076401
6.358881 0.773707 8.633098
4.243427 1.078674 6.581753
3.882811 1.126307 6.989420
4.268321 1.059834 6.688877
6.940480 -0.869964 8.494437
6.053810 0.713957 8.092359
-4.734921 1.965199 14.753927
-5.767926 -3.507947 4.689713
-0.253355 0.830874 9.333179
0.278545 0.985031 9.781816
-6.938350 -3.827401 12.362820
4.351579 1.142025 6.312514
0.961358 1.869599 8.242113
4.096082 1.214234 12.075808
3.809289 1.901110 11.928209
2.185333 2.403953 11.131926
0.314238 1.969478 8.126812
-4.614617 0.768310 5.620647
3.444145 1.236567 12.383348
-8.942105 1.061781 6.885420
3.520956 2.620821 6.361316
3.246785 2.687716 6.386412
2.860111 2.420048 6.506201
6.238976 2.886398 11.410939
5.024057 2.216391 7.923207
5.233412 1.533544 7.954588
5.255635 1.585280 7.856554
5.330808 2.948791 10.398611
6.057583 -1.085497 7.345115
5.197870 2.971537 8.914260
6.247663 0.712000 8.167243
1.754608 1.480358 10.236726
-3.953235 -3.318765 21.188524
-2.855315 1.957262 11.570681
3.176697 1.044860 12.661426
-4.835626 -3.392348 6.441010
-3.543082 -3.037642 20.559601
-8.642258 -3.617918 7.542717
-7.066477 0.012536 13.092055
-7.017182 0.220878 13.148030
-6.315078 0.744921 12.690169
-6.567934 0.679745 12.591688
-7.035392 0.719706 13.250014
6.361344 3.023499 11.360676
6.403121 2.875097 8.096810
6.117950 -0.499061 7.735420
2.593592 1.329866 7.681349
5.582220 1.182922 13.289545
6.689469 -0.476771 6.696141
1.680596 0.637884 8.974596
2.765831 2.532401 10.476954
1.568725 2.257555 10.130464
2.241009 2.575174 9.675528
2.644701 1.182893 7.530151
2.510139 0.690754 5.738483
-0.631754 0.227450 3.170368
3.927879 1.090662 7.210670
5.060380 2.919560 8.152328
3.895720 1.100454 7.083920
8.120228 3.619384 12.659947
5.978311 0.655376 7.826532
6.908047 -0.815198 8.528125
6.592570 -0.207715 8.148381
5.372395 2.963020 9.205374
6.244212 0.052922 7.494662
4.574894 1.242879 12.567858
2.264343 1.674070 10.785534
1.002858 2.257632 12.457887
2.129576 1.981170 10.669858
3.225860 1.050544 12.538836
2.248750 -0.282729 18.950161
0.157371 0.980829 9.157429
6.090653 -0.505401 7.123129
3.284354 2.983212 5.346537
4.046561 1.430822 7.437921
3.591816 0.805445 6.168930
6.174222 -0.198585 7.904294
6.101420 -0.885953 6.361113
3.090625 2.863320 6.011832
5.128846 2.291877 7.774831
4.829300 1.521757 7.000156
3.110665 1.192514 7.634756
6.437925 3.103371 11.335412
6.788695 2.702293 11.202417
4.392424 1.170614 7.577355
2.829975 1.163388 7.399553
6.087980 0.045177 7.856850
6.381617 2.954437 11.375713
3.718376 0.766657 6.579071
5.812955 0.912251 7.714904
3.634248 1.359021 7.102559
3.545232 1.351704 7.859833
4.258260 1.171016 13.127082
4.383548 1.256175 12.803340
3.526442 0.873708 6.302796
3.435266 1.085539 5.746377
3.535040 0.684165 6.503335
6.303998 2.918685 11.397794
6.500561 -0.637002 8.526506
6.172945 -0.203152 7.916945
6.133203 -0.046895 7.795608
5.976635 1.231167 7.236450
6.295724 0.491086 8.173280
4.015800 1.036452 6.703108
3.640181 0.811589 6.527755
-1.022123 2.096873 9.914824
1.886405 1.872181 11.234492
9.152807 -0.227197 13.052896
1.633141 1.294245 10.475884
1.538595 1.427853 10.523075
3.724333 1.357064 12.327150
-0.576097 1.049257 14.423410
-1.399787 1.072446 14.899222
-2.728859 -6.718338 9.622686
4.443979 1.235353 11.771441
2.200395 1.118834 8.510988
2.728760 2.434965 10.408877
-2.357644 0.776510 7.073249
1.268600 0.578753 7.957447
2.200140 1.048854 13.174278
0.252043 0.804868 16.243261
8.219502 -7.925248 18.683847
3.489936 2.560961 12.441047
1.045150 0.906444 14.283963
1.216163 2.748167 13.615301
3.742960 2.366116 6.463420
2.145301 2.684648 9.576884
2.805338 2.465438 10.424191
1.482903 1.209342 8.072404
2.581019 1.863487 10.256504
1.860350 1.528316 10.385471
1.819428 1.188918 7.518279
-0.378267 -5.906533 9.778141
2.748416 2.483301 10.405892
1.887491 0.995782 9.867291
2.366153 1.184857 9.738713
1.640978 0.737984 4.451585
4.166440 1.254033 5.614366
1.788321 1.353995 5.038156
2.382941 3.043867 6.016670
1.317262 1.350205 5.312762
2.698577 0.872328 6.698152
1.279242 0.944886 5.294886
2.924577 1.211049 7.897707
3.767231 -4.909532 2.300133
3.798040 1.328430 7.331738
5.314731 2.863259 5.523633
4.032112 -4.575957 2.673223
7.675705 1.215337 11.721940
6.051004 0.504820 8.322566
1.739291 1.333503 10.406497
5.958962 -0.723985 7.594562
2.796440 -1.461990 17.501699
0.880530 1.899768 19.703030
1.331418 1.003240 13.684293
1.852748 1.770379 10.729357
5.018415 2.392526 11.415111
1.633785 1.900952 11.119507
1.829073 1.758250 10.736835
7.018912 1.928226 11.915790
2.524343 1.561874 14.825758
-2.863584 1.146195 12.142027
9.339417 -6.035565 16.336615
-2.844444 1.140320 12.190939
1.913502 0.960699 13.704593
3.645513 1.181765 13.208717
5.117747 3.087983 8.004093
3.953868 2.805514 12.188482
3.996044 2.961488 12.403538
3.991161 0.812364 13.150409
3.691531 2.353709 6.605922
4.990711 2.264529 8.036563
6.280329 2.867825 11.400078
6.419587 3.119594 8.045505
6.826106 -5.315318 10.162856
2.545527 1.011235 6.009415
6.225542 0.406546 8.179224
6.416431 0.834916 8.520250
0.433003 0.549248 4.520552
3.811632 0.817294 4.913683
-6.787666 0.697252 6.633101
-6.944555 -7.029407 10.587662
-5.978997 0.748466 6.536238
-3.765428 -4.335335 14.497436
-3.790110 -4.369154 14.514888
-3.809482 -4.389414 14.518517
-4.525655 1.387886 14.908339
-6.110363 0.744903 6.416307
2.214893 1.687418 10.967268
4.180086 1.192042 12.665524
7.992108 -5.585042 12.030796
6.105164 -5.786920 12.816015
-2.989264 0.759340 11.172594
4.185456 2.302733 24.998522
1.658900 1.890820 11.069290
3.532247 1.024803 13.662371
0.642095 3.272929 19.746195
2.561254 1.883757 10.765079
6.783831 -4.747597 12.814892
3.707931 1.119116 4.329082
1.285364 1.129843 9.378203
2.138984 1.149217 9.979996
7.011557 1.404210 11.864797
-7.215000 -7.200893 16.940104
-1.702599 2.468055 14.840637
-6.195839 0.388725 11.285096
-8.509090 -3.371270 7.771254
-6.990049 -3.453471 3.237717
6.021474 -0.262422 7.696401
4.163850 1.468225 12.270909
6.293516 -3.169753 6.958080
5.880157 -5.236241 7.428443
7.113549 -10.664391 15.018600
-1.698387 -8.547935 22.091272
-9.204389 -5.478019 11.426825
-12.745577 1.613164 10.656398
1.264687 1.476393 11.184555
1.282452 1.017671 14.445864
2.068934 2.888105 9.796961
-0.342092 0.933271 14.149221
5.862071 0.816866 7.715147
3.109043 1.220440 7.663102
4.364113 1.249264 12.800940
5.053066 2.722541 12.899631
5.963122 1.221407 13.114772
4.710595 1.241717 12.613960
3.758418 1.201872 12.582305
3.908725 1.416783 12.378335
4.334711 1.233502 12.790528
4.639680 1.213588 12.613313
2.940664 1.769454 9.951550
1.805513 1.803274 10.698543
6.513009 -6.161274 7.036125
-12.445454 1.419585 10.540167
1.132480 -0.564722 -4.952960
0.894189 -4.846979 -7.072756
1.128661 -0.584938 -4.972826
1.717611 0.264758 13.948955
-7.687545 1.954677 8.383537
-8.073806 -6.723836 10.548714
-8.131435 -7.209037 11.024166
5.872723 -0.414944 19.817097
0.472792 -6.536601 14.610089
-12.380901 -0.014980 12.861883
-2.689504 -10.427068 15.165388
-11.298720 0.096226 10.568828
-10.006493 -7.508090 11.443894
0.162234 0.796260 16.080603
-6.999322 2.099679 9.014120
-7.984440 0.773348 17.242689
-9.367069 -5.761937 11.294821
7.063230 -4.826241 12.960016
0.649815 -9.671210 13.557214
-6.989165 2.122678 9.068987
5.361050 -9.425230 14.087821
-4.087307 0.808432 8.015234
-3.620559 0.548569 9.450709
1.918841 1.244112 7.411289
2.027377 1.278614 7.468465
0.221858 1.693359 13.750444
1.984878 2.522175 10.949385
1.000964 1.502427 13.121700
-0.732800 -2.321726 4.897171
2.302640 1.131780 12.434713
0.213612 2.201280 12.788669
1.809813 2.359340 12.523683
2.488189 1.214893 12.378606
-0.371300 -5.155475 8.744239
0.080726 -3.633371 7.830580
3.466211 1.135211 5.502468
1.742422 1.754292 10.771226
1.545057 1.054656 13.754569
3.527882 1.506988 7.014478
-0.207206 0.282660 3.657754
4.139987 1.096377 7.719582
-10.246476 0.987710 11.384772
-9.093804 0.603343 10.051582
-7.732684 2.078359 10.535953
-9.974147 1.920095 9.941604
-4.035392 -0.283341 4.890735
1.904898 1.377483 10.700607
2.042127 2.079463 10.670204
-1.273502 -5.339951 9.687005
-2.077328 1.210645 13.775098
2.644971 2.587118 10.490434
1.629789 1.199317 8.171354
1.798648 1.663504 10.555979
2.195051 1.677194 10.362282
-3.071491 -3.433175 10.653921
-0.505463 0.676363 9.877300
0.840351 -0.225928 19.270121
-5.078467 -2.691990 14.835337
0.318858 1.851754 12.924524
-6.269583 1.001878 12.306296
0.807185 1.005995 6.961715
3.273171 1.288700 7.360529
4.080876 1.291910 7.564766
5.208811 1.718647 7.430030
3.441019 0.398741 5.027383
3.069298 2.274597 7.478869
1.365072 -3.599977 6.165441
3.357072 -1.756925 4.104487
6.267084 0.091328 8.093789
4.010389 1.147263 7.479943
4.231891 1.414016 7.698445
4.862729 1.510140 7.048326
6.403540 -0.787468 8.457382
4.031221 1.012650 6.734758
6.377131 0.967407 8.342019
6.249357 1.070473 8.512254
6.674640 -0.166027 8.544434
3.955561 0.768807 6.572765
5.976521 0.717641 7.653595
6.794293 1.172045 8.501019
-4.498249 -0.289185 4.658956
-3.124144 -4.425747 15.912253
-1.124664 -6.790086 13.558143
-0.992606 -6.516802 14.097210
4.051546 1.246913 11.755544
-6.608271 -0.033066 12.692000
4.369955 0.972787 6.410361
7.379416 2.580200 11.768785
6.245157 3.100158 9.668605
6.551251 -0.127077 8.071937
6.837882 -0.161534 7.624460
4.071707 0.986495 7.871092
3.619731 2.882419 6.160221
-2.611064 1.755883 3.732591
-4.318985 1.726421 2.871979
-2.367013 0.556111 3.903278
-2.566744 1.271137 4.169319
-2.664034 1.125139 4.167103
4.093294 1.223328 12.092369
-2.202330 1.187518 8.619326
2.590915 1.857343 10.104006
-0.527291 0.652746 8.619135
3.888678 1.803588 11.806652
4.175433 2.344204 7.008025
1.038272 -2.754743 2.794006
3.333715 1.300930 7.919003
4.804606 1.465642 6.886966
-3.998571 -1.084641 21.633698
-7.301700 -3.906460 11.603027
-4.088564 1.658188 21.581331
0.536784 -3.002775 5.156392
1.358465 -2.510695 3.267961
6.186549 0.410642 8.154859
4.825235 1.278477 7.037729
6.095094 3.111217 6.795338
-3.919125 -4.944845 16.572952
3.756067 1.229326 11.740596
-0.735314 1.017055 10.613978
4.900585 2.069331 5.940010
1.758365 1.204821 7.875841
0.717686 0.530095 7.024970
1.759301 1.196441 7.477236
3.737622 0.698079 3.989012
2.496803 1.119330 7.240197
1.311900 1.136806 7.651947
-2.304548 -2.545233 5.155280
-6.264916 -1.769099 3.842911
-0.902276 -2.544426 5.965696
-1.476410 0.736549 4.358209
0.469183 1.073730 5.685316
5.341788 1.218017 8.409010
6.122568 0.717433 7.912906
6.217033 -0.394435 7.974398
6.162037 -0.475326 7.940628
6.134373 -0.421349 7.829745
6.094156 -0.509045 7.618743
3.872379 1.104124 7.041321
6.202518 1.284770 13.207908
3.811005 1.165310 12.855530
4.551023 1.221871 12.786358
3.212187 1.238704 7.948478
4.097452 0.331052 13.249178
5.918467 -0.218382 7.944934
6.215055 -0.197413 8.134206
6.216736 0.626310 8.193485
6.027452 0.355914 7.602882
-7.130364 -1.920119 3.407416
5.017838 1.741689 7.860548
6.216024 -0.235937 7.864783
-1.149227 0.866376 9.554385
2.754405 1.176790 12.404646
2.848197 2.188374 12.747659
3.105726 1.192341 12.599816
3.667843 0.824590 6.548609
4.621585 1.246821 7.346725
-8.633059 -6.816993 5.599429
-3.001555 0.487292 1.963013
-4.283709 -0.557726 3.143183
2.682792 1.395981 9.169400
6.018154 1.236405 13.138331
3.980171 1.388459 12.316902
6.218129 0.326376 8.198024
6.044917 0.118088 7.717781
4.984509 3.115163 3.929859
6.927092 -0.835890 8.530440
6.119021 1.407600 7.153468
5.995126 0.552920 7.694973
7.250871 1.392164 11.933805
6.518000 1.908738 11.972783
-0.923301 0.732595 4.562586
0.503251 1.529155 4.553800
0.612385 1.371970 4.593456
-2.005297 0.576015 1.744544
-0.555062 1.459832 4.246630
-0.943317 0.931590 4.562354
-0.156730 1.446907 4.750405
-0.275819 1.406250 5.084753
-2.465428 2.516964 3.304111
3.225704 0.969671 5.371511
3.805321 2.270095 6.501543
4.170258 2.533358 5.701838
7.491752 1.725053 11.725799
6.398121 -0.779701 8.460620
6.446698 0.004407 8.355152
6.281875 -0.290208 8.137707
4.761600 1.215395 7.033692
3.198832 0.977072 5.146717
6.001551 -0.774831 7.447919
7.361268 3.115020 10.047873
-6.513364 0.493982 9.755933
-6.605243 0.364010 11.241957
-7.112037 0.309991 9.772079
1.862877 0.266717 13.973369
2.754099 -8.533134 13.898682
-3.131419 0.688013 10.224299
2.904792 1.123963 13.558940
3.027571 1.520297 5.949649
1.667893 1.288785 10.001909
1.669383 2.846109 12.126614
6.239092 -5.373043 8.623801
1.125670 0.180956 14.278469
2.710319 1.091425 13.770818
2.390143 1.250456 9.667299
5.928717 -5.755073 7.556395
-1.578409 -0.785101 23.273251
1.421658 1.918354 10.768907
5.908868 0.063187 7.946862
5.977423 0.593338 7.758996
0.039027 0.873386 13.785886
5.777205 1.024625 7.181273
-1.608887 1.002208 14.904399
0.648071 0.874962 16.602636
2.224926 1.295312 23.598330
4.779715 -2.055698 20.648670
8.608082 -7.966586 12.196125
10.396688 -10.837725 9.974133
8.863909 -7.200477 18.125158
1.429603 1.870881 10.975356
8.250267 -9.274347 10.179997
1.809320 1.797275 11.233826
6.065740 1.990364 12.489719
-1.498908 0.927773 15.041539
6.661377 -1.988127 20.166464
1.624584 2.475796 14.120946
1.700373 2.270056 13.728811
-7.584771 -4.774491 22.095442
1.502363 1.487698 13.546888
2.606361 0.799154 13.575208
3.655039 1.382421 5.268755
1.858338 2.708290 11.337964
2.532300 1.004610 14.029896
1.931920 1.782390 10.719759
-0.005239 2.511029 14.692882
-3.498340 0.561940 9.478322
-0.640771 -8.873104 14.943500
-8.473568 0.592485 15.151690
-4.231183 -11.235566 17.437016
-3.075854 0.727589 11.176012
1.773107 0.237628 13.931015
-3.128772 1.873215 9.185188
2.523944 1.434265 10.469419
7.595357 2.726183 11.777789
6.522088 -5.295757 8.836729
3.640422 1.179923 13.223083
2.703943 1.438214 7.215034
3.783031 1.315136 7.263175
7.153170 1.531717 13.393015
3.262432 1.118685 13.519980
5.993296 -5.320171 17.350948
2.283810 1.092731 13.145166
-6.201497 0.382923 11.267818
-0.034153 0.949502 13.729826
-7.739410 -5.119910 23.454573
-0.737813 -7.311648 15.841916
2.954484 0.403105 13.584863
-3.358226 0.637980 10.501328
3.117905 1.196300 12.037545
1.018357 2.255254 12.455338
-0.595953 -6.667089 11.405788
0.003722 -4.350734 9.244893
2.316468 1.122504 12.415079
3.131061 1.191745 12.015395
3.857769 1.389189 11.614737
-8.051599 1.992869 13.773258
1.674746 2.698229 11.470915
1.466003 2.854450 10.361029
1.748924 1.805827 11.276979
7.362273 3.102197 10.986214
1.517781 1.176537 22.246496
6.355381 -0.753375 8.470676
4.096834 0.336103 13.241191
3.332794 1.334684 7.972935
4.097982 1.153548 13.010123
3.791050 1.154476 12.836430
4.374485 1.238478 13.386059
3.171326 1.116854 12.834947
3.776003 1.149158 12.833514
3.926572 1.430820 12.383895
4.018507 1.409527 12.321351
1.249191 1.502989 13.010238
-4.135596 -3.203451 20.203699
-0.373957 1.112215 13.531220
0.122789 0.979273 14.354083
0.379097 2.213401 12.188758
-11.008613 -8.213483 12.856072
-3.904274 0.664679 8.703004
-12.061489 -0.443024 12.764139
-3.161198 2.337308 9.789379
-0.906920 2.769032 13.267235
2.220523 1.599784 9.873572
2.001617 2.203427 10.162300
6.248100 0.895182 8.552601
2.393101 1.395161 10.476756
2.712869 1.145989 7.654356
5.789531 1.047871 7.215524
0.194182 1.068963 14.065667
1.855674 0.994301 13.399542
3.607486 1.004622 5.946266
7.305866 -6.567902 13.377437
3.535820 2.804823 5.624331
3.655663 2.983434 4.977098
5.996093 -5.717770 7.497080
0.897862 1.169252 13.657070
6.038054 0.309622 7.736375
6.375111 -5.111669 8.932629
-7.375765 -7.208024 15.943538
-3.290492 -0.112756 8.845733
0.245863 1.058921 9.219073
-7.854169 -7.237316 5.339665
1.377808 1.544132 13.029908
2.665894 2.038761 10.202066
2.838589 -3.596115 17.127817
0.234637 2.199892 12.796597
3.558080 2.399454 6.700561
3.493928 1.411253 5.635270
2.866127 1.043501 5.210776
5.473959 2.626946 7.624630
3.852254 1.084661 13.457780
3.572616 0.858265 6.362415
2.528674 2.526047 10.596430
3.618119 1.172770 12.690361
3.580589 2.454773 6.619566
4.110769 3.572381 5.708077
2.569402 1.834463 10.638490
6.805983 2.800445 11.662970
1.788248 1.060769 13.865562
1.481295 1.201206 9.084757
7.025132 3.087003 10.275225
2.658105 2.850455 10.854061
5.025741 1.779190 7.972171
2.241436 1.392683 10.181866
2.119038 2.825773 9.920261
1.016747 2.589593 13.641146
-0.254552 0.729593 13.698262
4.799079 1.471754 7.189675
6.561378 3.660263 7.358497
4.083837 1.203225 12.586755
3.132239 1.210994 7.573635
4.592027 1.232869 12.796513
2.185214 0.694929 14.022765
2.836862 1.095787 13.525580
2.265398 1.090875 13.133966
3.992192 0.567504 6.599507
4.971455 1.283536 12.647801
12.570989 -10.930306 13.959448
3.115650 1.195725 12.032973
2.584991 1.219733 12.619074
2.116326 2.409200 10.931476
1.808319 2.365556 12.513264
-6.584522 -3.773025 12.043430
-5.539293 1.188395 5.520354
-5.467254 -0.379832 4.150633
1.137975 1.155496 7.555763
6.381647 -0.761178 8.469915
6.279168 -0.165547 8.434130
3.880342 1.399092 12.374078
6.120748 0.546185 7.748320
4.489091 -4.601727 6.629635
7.280360 1.989061 13.360309
5.541198 2.833820 12.831991
2.634777 3.121589 7.083199
-4.365340 -10.669727 16.740044
-2.880629 1.028772 11.044515
5.530746 3.088168 6.079851
6.135488 0.081225 8.081958
5.839235 0.041990 8.457689
4.366811 1.509444 7.481061
6.351086 -2.780737 7.067413
6.216547 0.324791 8.197886
3.349559 0.709152 5.486250
14.327759 -0.296824 12.599511
3.739628 1.369959 12.280100
-8.342017 -2.041197 25.551149
-5.878538 1.002084 12.250526
-6.556717 0.516356 9.804814
-3.821873 0.899212 8.172648
-1.189978 0.404100 6.510281
-10.304550 -7.097340 11.929978
0.076280 -6.930110 15.291438
-0.443130 0.384931 6.418097
-3.714263 0.960425 8.362098
-11.950705 -1.126201 12.637055
0.442799 1.046742 13.813204
1.573147 3.040131 10.271195
5.266748 1.220746 13.214991
4.431430 1.179633 7.516932
1.171312 1.210163 13.592684
5.099464 -5.153280 6.749413
5.359476 1.562045 7.862288
7.404157 3.072391 11.242577
1.084460 2.575038 10.570595
2.464101 -3.501733 8.521106
3.632684 1.452691 12.548120
5.771390 1.002222 7.179989
1.837572 2.797190 11.437714
1.596894 1.943119 10.872705
1.505883 1.870894 10.980814
6.418563 -0.764236 8.393501
1.950516 1.456512 10.601659
-4.070881 0.817503 8.029881
-2.677738 -9.987487 13.796844
-7.285695 -6.481927 15.195929
-3.349840 0.511161 10.656704
-1.288614 0.678214 13.663229
-3.103023 0.385167 10.805476
-6.182753 2.313581 8.835000
-4.096697 1.860463 8.395926
-0.876937 2.325332 17.324495
-1.411080 2.477317 14.019567
2.583071 1.887039 10.721158
3.903576 1.252906 13.376448
2.536099 2.723435 10.956647
2.667744 1.510170 9.222817
-0.225932 1.079134 2.528171
4.071243 0.053426 0.793782
-2.275246 0.369709 4.040861
-1.775169 2.720232 3.708353
-2.688782 1.250152 4.232516
-2.181908 0.581072 3.765944
-3.535432 -0.256735 3.237437
-0.721471 -3.550908 1.128489
-8.115310 -6.892978 10.717979
-8.115145 -6.936965 10.752373
-0.031689 0.096082 13.041474
-11.865031 1.562765 14.182981
-0.624770 0.042651 6.547686
-8.064497 0.332144 5.218123
-8.220791 0.602060 5.267523
-3.818430 0.986954 8.829726
-10.145200 0.492029 6.875915
-9.477902 0.199257 5.689764
0.426755 0.055883 6.401803
-9.617987 0.667139 9.713752
-9.621686 0.690422 9.716994
-8.770909 0.966845 11.856789
2.813725 2.889874 23.700308
9.055614 -0.106284 8.559389
-6.402358 1.248039 12.058277
-8.063311 0.368397 5.314301
-8.218568 0.601004 5.261680
-8.309216 0.671623 5.256155
-1.171862 1.655819 7.330497
-7.644498 -6.860849 14.732708
-0.573607 0.380544 6.353205
-8.062725 0.372213 5.318648
-10.060557 0.867872 10.280395
-8.229914 0.632847 5.332851
-4.019580 1.485881 8.483460
-1.721377 0.357022 7.615529
1.255526 -11.490716 16.463049
0.645649 -7.519644 15.082895
-7.038966 -7.083523 10.431657
-6.942662 0.753337 6.606097
-2.951100 1.087637 11.647402
-5.146472 1.334303 8.829274
-4.080893 0.837612 8.286487
-6.955800 2.000002 8.748133
-2.960559 1.041962 10.874876
-8.062460 0.335127 5.230196
-9.693261 0.278157 5.680650
8.938907 -0.093968 8.627836
-2.705616 1.193557 9.127596
-0.482586 0.035031 6.631903
-4.197544 2.192229 8.114080
-0.567442 0.023365 6.573482
-8.221408 0.596952 5.248190
-1.276751 1.104608 7.256913
-3.166087 0.207046 7.592967
-0.545920 0.349360 6.058928
-8.221860 0.592144 5.242422
-8.092847 0.397799 5.370847
-9.444554 0.177300 5.629209
-1.227600 1.115601 6.967659
-6.546515 -7.213308 17.758318
-2.414461 1.199282 11.514234
-11.431313 0.761092 12.628573
-9.317552 1.479947 14.662394
-5.172593 -9.038347 13.959990
1.659116 -9.486825 9.728467
-0.590660 1.311161 15.703588
-11.696180 -0.417916 13.275405
-3.044112 1.200530 9.522609
0.708746 -10.693798 15.784496
1.251655 1.694487 4.649070
0.843981 1.223543 4.362755
0.749480 1.305847 4.360795
0.794738 1.214911 4.359827
1.630596 1.776116 4.662878
0.844370 1.431695 4.372886
0.937025 1.444326 4.382727
0.835681 1.271523 4.363091
0.789519 1.343352 4.370027
0.760557 1.253210 4.356987
0.834995 1.139160 4.357217
0.882755 1.145642 4.362063
1.508390 1.809204 4.599128
0.774110 1.148334 4.354515
1.023307 1.166730 4.377707
-4.911232 2.043043 12.417641
2.883787 1.127688 12.930414
3.199600 1.102559 13.511406
3.238419 1.218290 7.680456
2.549555 0.957187 13.426332
3.255093 1.117079 13.530595
3.211772 1.282928 7.762352
1.611605 1.872318 11.032783
3.626638 1.345141 7.221015
-9.098516 1.553537 21.966173
-5.122643 2.367860 9.656785
-8.006179 0.928177 17.216005
-7.431057 -9.727386 17.560074
-6.756300 0.462201 8.978677
-2.690155 0.764571 10.659308
-6.527382 0.143591 9.887223
-7.935870 -7.172880 14.775252
-6.753280 0.480766 9.095722
-11.138371 0.156705 11.147273
-6.932496 0.646089 9.084597
-5.368707 2.299342 9.709059
-3.282186 0.536288 10.756140
-1.198709 0.712424 13.839295
-3.078579 -0.092513 9.252800
0.691686 0.875126 16.700598
1.668384 1.000761 10.104786
4.252425 0.969283 7.564234
7.260854 -5.480307 12.119622
7.311504 1.510103 11.766460
7.695520 -5.996923 11.655999
-1.277997 1.653500 7.277381
0.057211 2.468249 10.071160
-0.797662 1.475211 9.147454
-1.419878 1.018547 7.161815
-0.358160 1.305131 7.367612
-3.378165 1.876318 9.344204
-11.689151 0.061830 13.659746
-9.784526 0.335081 6.414956
-12.181585 -0.509665 14.011138
-1.565405 2.412046 15.187997
-7.404605 -6.619998 15.526387
-9.111602 -7.347992 11.194165
6.314258 1.099415 8.721365
6.923126 2.809494 11.175641
4.851815 1.307431 7.125543
6.003245 -0.751192 7.486748
6.020649 0.340688 7.683710
3.863280 1.394789 7.185162
3.849172 1.347531 7.462880
3.047982 2.823653 6.159209
3.558848 0.947558 6.125678
4.273396 1.013166 7.493387
6.604279 -0.497097 7.174526
2.928595 1.193827 7.249883
5.153471 -4.822306 6.313376
5.834589 0.107691 7.539986
3.254290 2.629930 6.560492
2.535251 1.773505 9.918905
2.418706 -3.840387 18.447123
2.030559 1.378770 10.469182
0.088954 -3.049994 8.120918
3.382205 1.257358 7.478929
3.194991 1.186782 7.668421
-2.398635 -0.420296 4.176950
0.681565 0.951206 8.935390
-4.945977 -4.541741 14.555690
-5.456858 0.120569 5.938551
0.699674 1.801469 12.854171
-5.946660 0.698790 12.488580
-7.420689 0.901510 13.374472
-6.114909 0.692229 12.483135
-3.471712 0.885540 11.184313
3.197475 2.326866 7.159222
3.104651 1.197200 12.621217
-6.432636 -1.936865 4.118549
0.153647 2.246467 12.837296
0.472515 -1.319893 20.196743
2.191328 2.309347 10.882580
-5.638820 -3.970786 4.603508
2.630773 2.375336 13.048440
6.403852 0.976258 8.311339
5.250001 1.412645 8.122619
6.250028 0.391659 8.133655
17.059177 -0.455816 12.883032
6.359851 1.094613 8.695712
4.083932 2.982943 5.654977
5.034570 3.057692 4.053867
2.527137 0.813392 12.961058
1.049071 -4.525065 14.498874
11.666840 -7.471397 15.048473
-1.645718 1.874884 5.128752
6.726678 -3.094187 14.278341
0.598151 2.824542 13.520400
-1.116769 -4.801668 8.342076
-6.243240 0.696657 12.455498
-3.850415 4.440403 9.300138
1.917876 1.137063 12.552232
-0.369463 1.005818 10.614053
-1.065183 2.142863 9.948342
1.844979 1.259113 12.477384
2.428782 1.175270 12.882959
5.209994 1.549013 8.015599
6.175024 0.051938 7.910415
6.046094 3.059929 7.270912
3.725122 1.183281 12.576912
2.669149 1.376752 9.258514
3.947578 1.537279 12.478389
4.329576 1.195100 12.829556
2.770729 0.919082 5.417988
7.199975 2.731540 11.699779
1.221883 2.080962 7.923707
0.369518 1.083877 13.129167
-1.951475 1.588603 13.586782
2.235513 1.143884 12.512909
0.740302 -3.893632 14.485265
-1.046265 0.567131 4.507465
0.674369 2.822783 3.752465
-0.203804 1.164370 4.829147
-0.955795 1.409294 4.431194
0.064753 2.563288 3.299398
-0.216567 1.145513 2.439229
0.026815 1.450950 4.636659
-1.022542 0.755691 4.544914
1.972243 0.118759 0.758706
1.549273 1.532185 4.213418
5.968102 1.278664 7.295462
3.710655 0.790700 6.553526
5.291039 3.051679 9.030025
3.460198 1.360743 6.047716
1.828121 2.355691 12.503148
4.242007 1.263847 11.671209
4.391022 1.248256 11.661418
1.199378 1.965084 13.178585
2.496810 1.157189 9.771272
-0.682002 0.873903 9.660611
-7.447770 -4.420393 7.153621
-4.568935 1.397122 15.036708
-1.580614 -4.233789 19.879993
4.682258 1.079521 13.097160
4.700471 1.239900 12.608809
3.768657 1.211061 12.583591
4.143497 1.012737 7.381408
7.328719 2.813564 11.712424
3.942697 1.537168 12.479023
4.637974 1.069250 13.075075
3.645405 2.384215 6.857065
6.220084 0.306848 8.195136
4.816154 1.270929 6.976784
-0.360478 1.396878 13.639642
-5.888776 -4.502992 11.785446
0.307260 1.166098 13.116961
1.197015 2.253522 13.250196
0.475976 0.992689 9.435065
1.604439 0.910666 13.252522
-5.367095 1.160172 11.957268
-3.029231 0.879439 11.305305
0.152985 1.038071 8.747303
-1.117482 2.231922 10.792799
-0.464139 0.800121 9.306627
6.122044 -0.910087 6.259665
0.748921 1.127276 4.350351
0.909546 1.221808 4.368951
0.771238 1.395452 4.368082
0.882251 1.401175 4.369774
0.879080 1.310337 4.369757
0.780410 1.358271 4.362703
0.790179 1.392336 4.365842
1.310985 1.739632 4.710370
0.740100 1.125390 4.350441
3.751182 -1.178403 7.000153
1.523117 -0.443489 -3.400187
5.908861 0.142086 7.407538
3.455242 1.231236 12.349734
3.481752 1.187025 12.809849
-0.922538 0.844449 9.457451
-4.423157 -4.389409 5.421297
-7.054364 -15.773159 22.226852
1.825857 0.990895 13.673151
1.530160 1.879876 10.906610
2.015432 0.652996 13.963000
1.599449 1.895584 11.092725
2.922220 1.790319 9.621018
2.264569 2.845021 9.732703
-2.902000 0.681401 11.024082
-6.383744 0.380971 11.323409
-0.052345 0.963574 13.727756
1.885216 -9.559433 15.687744
4.108233 1.102005 13.746251
-1.770762 -1.709459 8.482223
0.346484 1.394621 12.805281
1.246415 1.512742 13.031971
-4.367715 -3.553818 11.679453
-0.438928 1.162118 15.799014
-7.938360 0.270351 7.759326
-1.259572 0.496507 9.750690
-8.820066 0.468197 6.779219
-5.677621 0.516393 12.013388
-3.383933 0.638019 10.489120
3.231646 0.829129 13.769558
5.887846 -6.105201 13.715703
-3.022302 2.372282 11.375488
1.514549 2.478159 10.222788
2.413651 1.579105 9.727410
-1.129864 -4.089009 7.614367
-1.192227 1.215353 7.714872
0.117103 0.986845 8.760771
-2.405210 -2.582753 5.087715
-1.026357 -2.454928 4.689339
-1.751702 -0.265198 4.315482
-0.845351 -0.061052 4.324592
-1.733226 -0.287327 4.304102
3.362405 0.913630 5.441605
7.522458 -5.306114 12.088005
2.419754 1.411161 9.597223
2.506835 2.479314 10.623611
1.278554 1.189959 13.516710
3.469254 1.223480 14.203372
2.957843 1.107738 13.173263
1.746552 1.029808 13.831038
5.961854 -0.428364 7.554427
5.221563 1.567266 8.023092
5.984926 -0.622660 7.484796
1.898447 0.685071 13.925992
2.469303 0.939980 13.975828
1.478643 2.100510 13.587416
3.742512 0.771282 6.467129
-6.230773 0.418955 11.334454
5.274037 1.164631 13.144076
3.747779 -4.681260 13.860535
-1.280300 2.623586 14.101862
-2.972820 0.761814 11.176129
-8.058271 -2.428609 24.181276
0.119150 2.602059 14.773432
-0.109420 2.626877 13.620673
6.752532 -6.213654 15.363952
5.581449 1.179792 13.171279
-5.757320 0.501217 11.924957
-2.810049 0.926533 11.330318
4.464983 -5.260997 13.740766
-2.987737 2.335271 11.344984
-1.854772 2.537022 11.261805
-5.987692 2.229559 12.039895
-5.699272 0.507086 11.981754
3.584890 1.374773 12.511046
0.604462 -6.863124 22.677221
2.186545 0.867721 13.903990
-2.993081 0.763859 11.178169
-5.301797 2.362210 14.697819
-0.863957 -6.786009 15.947072
1.256958 1.204708 13.506558
1.197095 1.182475 13.439995
2.044909 0.685073 13.969112
-3.102485 0.912577 10.955738
3.537273 2.206158 12.444575
1.736701 1.148464 8.369423
-1.014967 2.019387 8.944370
0.906211 1.057703 9.592015
3.825339 1.225704 11.951323
4.047882 1.251322 11.772672
1.701995 2.343558 22.847660
8.872128 -8.752686 19.263885
-4.111502 0.456189 2.674326
-4.424787 0.407932 2.625412
2.036697 0.646690 13.955075
6.772588 -2.019437 20.275501
7.489656 -5.765504 11.559518
3.544774 1.432949 12.575351
6.240578 -5.385242 8.611272
6.324312 -2.919256 7.149593
-3.221046 1.410991 4.983656
4.399717 -2.990722 14.654804
1.371225 1.869455 14.094729
2.364591 1.386925 10.446336
5.871817 -0.128492 8.151150
1.703567 1.418656 10.427662
1.756544 1.395350 10.067027
6.032323 -0.826910 7.032825
0.853818 -0.741982 21.403812
2.887667 0.989274 5.335581
2.797676 0.659360 5.729217
2.773045 0.653807 5.709205
6.156285 0.176082 8.228825
1.627593 1.035428 13.947946
1.180021 1.865102 10.704607
-1.430276 -9.526667 23.567715
-6.199485 0.448285 11.053858
-7.106658 0.322416 9.775603
-7.073627 0.440021 9.826260
-7.929540 -1.978720 18.352633
-3.035289 0.716808 10.834257
0.014510 -9.663766 15.646032
-4.005754 0.607693 8.647173
-0.458576 -5.426001 15.447050
-0.964764 1.106085 14.736409
7.715671 -8.914616 10.900265
1.452197 2.839550 10.385794
6.747826 -4.688993 12.808261
1.281682 2.723730 13.641048
0.378900 3.037551 13.808214
4.046294 1.422824 12.297091
1.967682 1.354073 10.676878
1.342383 1.145584 10.176104
-6.817451 -0.084729 12.683795
-1.416459 -6.619111 9.969156
3.027331 1.403866 8.949747
0.738687 -7.929708 23.032549
1.264991 1.001031 13.678072
-4.589609 1.532067 15.051222
-4.084545 1.774288 2.788618
-4.036674 1.979150 2.771600
-3.903963 2.007444 2.678119
2.734250 1.079806 13.774115
2.055239 2.731900 10.028734
3.092391 0.250536 13.674328
2.266179 1.425888 10.131582
5.941684 -0.219801 8.490541
6.286359 -3.612625 6.964875
-0.634024 2.688435 14.677014
6.180356 -2.900946 7.047499
6.022982 -5.440418 7.268879
2.196512 1.670323 10.371058
3.366124 1.288450 7.958913
-0.823079 0.543666 9.613590
1.853674 2.129073 10.107298
-3.116748 -3.468604 10.654382
0.994893 2.156533 8.216110
3.379620 0.853281 9.336026
1.761675 1.576090 10.402531
-0.039600 -4.205759 7.517850
2.241905 2.579843 9.693810
-2.280457 0.605614 10.681898
-3.210452 -0.099642 8.905758
-2.562042 -0.098864 9.272699
5.988039 -3.181341 7.259192
3.373554 1.345453 7.725125
4.030947 0.964768 7.383941
3.710673 1.492805 12.561618
9.434599 -8.036914 1.719996
-1.522449 2.382118 13.865799
-6.610521 2.262666 8.949378
-6.928670 2.175635 9.073852
8.770777 -8.216977 19.001122
1.611561 1.887108 11.097125
8.938915 3.756867 10.914398
4.033027 0.629936 6.528040
3.854397 0.959367 7.175506
5.806387 0.890892 7.700958
-3.045870 -0.080844 9.291691
-8.810720 1.921965 12.509001
-3.161828 0.664144 10.180676
-2.916842 0.713953 10.395524
-3.218691 -0.115122 9.052001
-1.153074 0.310752 11.618711
1.099523 0.183560 14.260104
-5.799666 2.065712 12.230378
-7.233397 -7.136351 16.874056
-0.067750 -6.923585 15.303066
-6.883951 2.088752 12.730088
4.627246 -2.014189 20.457590
-1.402758 1.101616 14.892996
-5.876427 2.308307 10.940912
-6.718330 -7.226171 17.467558
4.001137 1.395860 12.316503
4.780596 1.207565 6.989562
4.056482 0.339208 13.230311
-7.241972 0.856038 5.677347
-6.998427 0.516213 6.337461
-7.327657 0.561885 5.778026
-7.207110 -0.304683 12.510441
6.285478 -0.271056 8.290643
1.458055 -4.159517 -4.780081
6.274030 -0.261032 8.321589
6.314969 -0.546068 8.057945
6.219857 0.422592 8.191113
1.798033 1.528494 10.857733
1.694450 0.899192 13.286846
6.254098 0.877087 8.546697
6.385747 -0.755712 8.460898
6.168503 0.858755 8.597470
4.325448 1.057772 7.366268
6.121644 -0.501286 7.722961
6.489602 -0.896732 8.685697
2.786552 0.853569 5.707608
2.698768 0.844463 6.159083
2.621571 0.998082 5.791412
8.950150 -7.835591 13.076478
9.368345 -8.511843 12.248542
6.434600 -3.226646 7.288052
1.603874 1.008674 13.920205
1.269268 1.188272 13.510409
3.258631 -4.614367 13.438020
8.544250 -7.706299 19.032742
-1.867287 -6.440205 22.138927
1.749892 0.973852 13.455074
-8.096502 -4.361577 5.966656
-0.560131 -6.280408 13.857722
-4.019168 -6.859803 14.404055
-3.042308 -4.376304 15.885017
-3.565485 -2.083215 14.110001
1.681014 0.552400 13.226363
3.820410 1.235341 11.962374
1.701391 1.519456 8.979771
0.973186 -3.461112 14.191704
-3.046729 1.199133 9.525479
-5.106469 2.375076 9.666062
-3.088160 1.531775 9.424159
-3.072282 1.820596 9.240654
-7.504230 -9.567394 14.720456
-3.304278 1.858233 9.069748
-0.478110 -6.899782 16.747580
-1.676379 -8.569571 22.063643
1.620539 0.554661 13.831463
-1.565598 2.730835 15.074426
-0.053020 1.892720 13.916540
4.341618 1.441087 7.318557
5.323811 2.389963 7.954567
4.716949 -0.455410 20.705214
1.713890 1.531402 22.815401
1.025688 0.196490 14.180246
2.043774 0.263728 13.991318
-1.266015 2.653558 14.104489
6.625677 1.507610 11.168280
6.061002 -0.267143 7.618114
0.457663 2.390090 13.172817
-0.324749 -6.542025 16.185019
4.099033 1.224357 12.073180
1.940822 1.349458 10.429399
1.051107 -4.789960 15.142777
2.503133 0.798612 13.020583
-0.443389 0.918711 13.362440
3.454426 1.243964 12.421370
3.842253 -4.278821 18.029123
1.965601 1.692682 10.576480
2.564038 2.810000 6.512519
-0.123462 2.543833 7.842618
3.262575 3.011062 5.316483
3.429702 2.641636 6.207140
6.004154 -0.425326 7.376433
3.113332 3.266005 4.719717
4.491026 1.178366 7.133814
5.036072 2.936783 8.121674
4.892957 2.972993 8.917029
5.734051 3.001131 10.128486
5.023375 3.056742 7.994643
5.886145 0.943289 7.567505
0.657864 1.807042 13.151458
0.494178 -1.323653 20.264933
2.454878 1.089336 12.757561
-11.517958 -5.984886 1.150658
0.138933 1.338969 13.221446
2.160170 1.900539 10.722998
1.929135 1.135953 12.550246
2.063792 -1.951759 4.326361
0.317024 0.156058 4.378778
1.522589 1.203230 8.100698
-8.577960 0.500845 7.521285
-6.361924 -2.490163 8.969974
-7.085207 -3.001278 8.279460
6.273583 -0.285011 8.148387
6.222233 0.115530 8.157995
3.963386 1.018765 7.143363
5.994181 -0.760024 7.476299
6.964875 3.001852 9.242855
6.117723 0.576381 8.030054
1.968834 1.175704 8.008138
3.767843 1.765701 8.095429
2.249474 2.462826 9.688864
1.299610 1.182744 8.604625
1.427040 0.999765 6.476055
6.086155 0.589925 7.866453
4.161996 0.575252 6.845552
5.239107 2.378063 6.178233
0.130138 -2.846879 4.842201
6.506907 -0.111743 8.656239
2.072633 -4.411543 14.166486
-7.736350 -5.195784 4.046402
-6.851856 0.179112 12.826717
-7.008616 0.215445 12.923811
-6.201291 0.739085 12.526492
5.166151 -4.807332 6.310136
3.968462 0.754676 6.588519
7.684832 0.911673 11.739119
5.905335 2.054508 12.090255
-5.301085 0.139809 6.037863
2.629539 1.385573 9.099204
-4.937227 -4.520578 14.573631
-0.677347 0.747430 8.721225
-0.423796 0.807785 9.296825
-2.255359 -0.352860 4.264528
-0.033733 -6.141197 15.855280
4.075137 1.229435 12.160088
4.485709 1.161828 12.014985
6.191461 0.186664 8.086490
4.622057 1.250047 7.351206
3.917150 2.700138 6.464442
0.070922 -3.386108 7.187573
-7.845955 -1.974331 3.619795
-0.246922 0.541716 8.585377
-0.130925 -2.686102 3.616619
3.347371 0.571222 4.689357
4.404663 1.205603 7.479915
3.570861 0.637233 6.371048
6.482575 -3.084478 6.926623
6.714879 3.078138 9.519074
6.116525 -0.088533 7.854015
7.080584 2.994910 10.245073
6.833700 2.871778 10.317307
6.277776 2.977881 11.340657
4.980343 2.958406 8.178978
6.141236 0.096766 8.182761
4.543913 1.237132 7.327923
4.330152 1.063655 7.447888
5.011496 3.023676 8.039806
5.547138 3.069595 8.353226
5.098016 3.035086 8.053195
0.807893 2.170850 13.524210
3.003225 1.191407 7.190587
4.266801 0.730462 6.654494
4.083425 1.296780 7.561129
-0.940198 0.048080 5.298025
0.419630 -2.343920 4.199536
-8.303271 0.585043 7.985195
-5.788452 0.159759 13.028747
-20.023783 -13.081075 -6.748127
-5.385390 1.727248 10.505754
-6.445298 1.968953 15.339276
-6.953867 0.179033 13.126027
-4.364470 1.956500 15.494981
-1.312377 0.412685 5.295422
5.212173 3.320505 6.535168
1.080287 1.187552 4.658956
0.999672 -4.793602 -6.647697
1.012495 -3.485108 -6.340794
6.004737 0.181368 7.782015
6.204640 -0.477760 8.010051
4.277273 2.009657 7.172720
5.019197 3.073539 7.969274
1.313069 -1.073072 -7.419704
5.978406 0.715707 7.642933
-27.714170 -15.143847 -7.300055
0.711129 -2.154262 4.505292
3.679062 -0.474467 3.313730
1.279913 1.484922 4.447945
-4.470758 -3.309015 6.287493
0.404917 1.944012 8.164660
-3.014098 -1.965211 5.455581
-5.083260 -4.771011 5.081606
2.674566 -1.180437 19.248671
-1.603289 -4.285089 19.909220
3.515239 1.146708 12.637579
-4.495062 -1.219426 19.311167
2.018848 -0.752276 -3.721133
-0.053535 2.673529 14.762801
-2.226490 2.400846 12.053743
-3.873835 1.094482 10.767120
2.688407 1.427805 9.295236
-3.302913 1.108520 11.583067
-3.590906 1.091200 11.267337
1.213472 1.425578 10.928144
-0.698725 1.527979 11.440086
-6.069634 0.250232 6.578066
6.433221 0.764632 8.507888
6.988702 -0.972521 8.473147
0.186167 0.520359 7.368547
4.045990 1.255868 11.779316
1.871561 1.148385 12.610753
2.294630 -1.141669 18.334635
0.831227 -6.032329 19.983541
0.710600 -3.273282 13.764732
3.617426 1.106592 12.428905
2.576245 2.292359 12.983810
3.716358 2.625579 6.091313
4.145590 1.267966 7.656169
3.823687 0.787716 4.847152
4.293690 0.920901 7.747352
5.816972 3.663218 5.323011
-6.420751 1.082897 5.035995
-3.739949 -6.902636 14.818576
1.964519 1.083409 10.194068
0.533762 1.052569 8.284599
4.356417 1.253844 11.940644
0.698121 1.055963 9.968835
1.715146 2.089956 13.624343
1.451904 1.016796 10.397620
2.288815 1.100305 9.792148
5.745125 2.462918 11.756246
1.040371 2.570460 10.558615
7.783687 -7.074400 13.498976
6.712531 -6.109503 13.889116
6.177493 -0.135184 7.913516
2.634519 2.733915 10.821010
7.164390 -5.374611 11.198300
3.803226 -9.484468 14.676861
4.279780 1.191716 13.369603
4.025229 1.022720 7.302538
5.998142 -0.391942 7.530893
2.505677 1.283046 7.897606
-7.607723 1.779881 11.350321
-4.422305 1.396697 15.336395
-4.279815 1.261259 15.341048
-6.161463 0.787609 11.028493
-6.921451 -3.413287 3.317625
-3.846243 0.926092 10.807341
-0.778306 2.852334 10.280457
3.336522 0.142070 0.226643
-3.794838 0.855689 3.048776
-2.687186 1.250267 4.232361
-0.160970 -2.957251 1.234142
-2.517195 0.963298 4.375669
-2.858876 2.505698 2.532449
-2.510288 1.570662 4.282119
-3.919971 -0.286967 2.859684
-2.232887 2.527677 2.915607
3.754374 1.021330 -0.152470
1.865191 0.974198 0.830761
9.724323 -7.587615 18.446308
3.729587 1.431866 12.555923
1.432900 0.657850 13.724847
-0.071334 2.671445 13.627442
4.533216 1.247819 11.729853
4.394093 1.303351 12.018760
4.261919 1.254861 11.846629
2.765332 1.779400 10.391709
4.384875 1.169016 12.137704
-0.031879 0.823940 8.596028
